ncols         77
nrows         82
xllcorner     -6149.32714844
yllcorner     -4621.98606143
cellsize      200
NODATA_value  -9999
-215.307 -216.011 -214.756 -215.010 -215.723 -216.596 -217.127 -217.153 -217.153 -216.018 -215.713 -215.031 -214.993 -214.795 -215.118 -215.434 -215.336 -218.111 -218.300 -217.651 -217.261 -217.773 -219.701 -218.607 -219.609 -222.179 -222.523 -220.341 -218.745 -224.971 -233.822 -227.004 -227.648 -222.321 -214.164 -215.391 -213.861 -212.777 -211.931 -214.083 -217.965 -216.230 -215.448 -216.139 -215.480 -216.592 -219.848 -228.775 -229.794 -231.722 -231.396 -233.574 -235.269 -236.153 -233.073 -230.386 -231.606 -230.440 -230.804 -230.170 -229.582 -228.063 -223.389 -222.440 -220.598 -224.553 -223.531 -221.817 -218.006 -214.263 -215.221 -215.825 -211.725 -210.109 -213.082 -216.483 -213.578 
-212.421 -212.346 -211.321 -211.787 -213.780 -214.921 -215.795 -215.847 -215.873 -215.874 -215.862 -216.358 -215.890 -215.449 -214.940 -215.537 -215.804 -216.009 -216.087 -216.025 -215.739 -216.334 -217.257 -215.936 -216.268 -219.320 -219.458 -219.844 -218.961 -225.737 -237.578 -230.043 -221.881 -221.958 -223.246 -219.792 -215.827 -214.749 -214.512 -217.047 -218.303 -213.323 -210.439 -208.563 -209.189 -208.801 -211.913 -220.540 -229.666 -232.457 -233.841 -234.185 -235.738 -236.544 -233.814 -231.247 -230.294 -228.765 -227.791 -228.915 -228.371 -227.678 -222.339 -217.228 -215.703 -221.208 -224.519 -223.819 -221.766 -218.379 -219.004 -219.393 -215.101 -212.041 -211.853 -217.466 -218.289 
-210.901 -210.538 -209.438 -209.370 -210.863 -211.985 -213.358 -215.219 -215.146 -215.134 -215.873 -216.688 -217.722 -217.270 -216.749 -215.937 -215.694 -215.200 -215.470 -215.408 -215.016 -215.620 -216.519 -216.106 -216.199 -218.559 -218.661 -219.136 -221.315 -226.063 -236.197 -229.316 -221.544 -221.258 -226.725 -227.966 -218.359 -214.895 -215.385 -218.525 -220.151 -210.798 -208.862 -208.549 -214.980 -216.157 -217.675 -221.479 -228.487 -231.104 -232.814 -233.515 -235.121 -235.869 -234.628 -231.274 -228.016 -228.417 -227.734 -228.802 -226.351 -224.240 -221.781 -217.239 -215.457 -220.212 -223.376 -222.308 -220.356 -217.300 -218.494 -219.156 -219.135 -214.555 -211.726 -213.302 -215.845 
-209.966 -209.080 -208.441 -208.009 -208.908 -209.532 -210.658 -213.165 -213.968 -213.885 -214.610 -215.322 -216.835 -216.969 -216.651 -215.924 -215.392 -214.474 -214.634 -214.608 -214.165 -213.973 -215.018 -215.142 -216.548 -218.249 -218.236 -218.890 -221.272 -224.346 -232.150 -228.468 -221.247 -220.715 -227.427 -232.980 -223.918 -215.899 -216.067 -215.234 -218.583 -212.640 -213.144 -214.123 -217.286 -223.129 -225.760 -227.338 -231.043 -231.925 -232.461 -233.028 -233.110 -233.883 -232.556 -230.742 -226.061 -225.795 -227.603 -228.687 -225.481 -221.739 -220.900 -220.071 -218.477 -219.678 -223.136 -222.641 -220.942 -217.898 -217.081 -217.221 -217.723 -215.600 -211.603 -212.617 -214.407 
-208.273 -207.950 -208.110 -208.096 -208.473 -208.627 -209.316 -210.766 -211.507 -211.484 -212.126 -212.781 -213.292 -213.671 -213.591 -213.749 -213.574 -213.504 -213.686 -213.696 -212.842 -211.873 -211.168 -212.972 -215.080 -218.310 -218.310 -219.028 -221.654 -223.395 -225.356 -224.291 -220.980 -220.082 -227.541 -235.111 -226.198 -218.606 -217.473 -212.214 -208.059 -211.269 -215.939 -223.556 -225.555 -227.845 -232.971 -235.798 -236.903 -236.621 -235.312 -233.424 -231.023 -229.278 -227.788 -226.256 -224.046 -222.783 -224.344 -228.544 -225.219 -220.066 -221.391 -222.386 -223.397 -222.827 -222.282 -223.685 -222.782 -220.777 -217.687 -215.074 -212.559 -211.169 -209.408 -212.411 -214.876 
-207.612 -207.772 -208.449 -209.096 -209.752 -208.815 -209.290 -210.823 -211.337 -211.468 -212.453 -213.075 -213.579 -213.662 -213.586 -213.266 -214.024 -214.538 -212.886 -212.820 -212.249 -211.573 -210.812 -212.245 -213.664 -216.332 -217.220 -216.969 -215.724 -218.518 -220.244 -221.086 -219.500 -219.594 -223.788 -231.577 -218.235 -212.224 -211.651 -217.948 -214.268 -218.373 -223.449 -230.443 -231.089 -232.727 -236.007 -239.154 -240.883 -234.792 -233.990 -232.387 -229.377 -226.448 -224.454 -224.407 -223.453 -221.545 -221.227 -224.651 -223.902 -219.116 -219.302 -222.516 -224.212 -221.924 -220.512 -219.413 -217.834 -215.922 -217.226 -214.390 -212.246 -209.682 -207.662 -208.721 -212.026 
-207.538 -207.499 -208.301 -209.449 -210.419 -210.195 -209.538 -211.119 -211.571 -211.924 -213.030 -213.726 -214.234 -214.329 -214.319 -214.036 -213.767 -214.805 -213.636 -211.871 -211.523 -212.445 -211.990 -212.937 -214.942 -216.215 -215.209 -215.528 -212.360 -211.520 -214.442 -215.526 -217.046 -218.074 -223.814 -228.372 -220.230 -212.856 -213.557 -215.728 -222.297 -225.862 -228.725 -234.533 -234.533 -234.536 -237.097 -239.226 -242.043 -236.802 -232.117 -230.864 -228.195 -224.833 -222.704 -221.637 -222.737 -221.594 -220.061 -221.075 -219.971 -218.276 -218.131 -219.360 -223.629 -222.420 -219.630 -216.763 -216.727 -213.572 -214.667 -216.807 -215.167 -213.100 -209.979 -208.038 -208.958 
-207.564 -207.558 -207.251 -208.650 -210.129 -210.810 -211.049 -211.802 -212.183 -212.293 -213.418 -214.098 -214.542 -214.679 -214.715 -214.730 -213.675 -211.989 -212.314 -211.312 -211.317 -213.348 -214.964 -215.332 -216.966 -219.557 -216.758 -214.162 -211.685 -209.830 -211.143 -210.618 -212.116 -215.622 -223.538 -229.824 -229.876 -228.870 -232.884 -231.914 -232.370 -233.031 -232.429 -232.049 -230.185 -228.861 -226.604 -225.625 -226.623 -233.090 -229.637 -228.589 -226.357 -223.644 -222.575 -221.141 -221.178 -221.544 -220.244 -218.246 -217.923 -216.762 -217.311 -216.335 -216.161 -219.550 -218.310 -216.578 -219.125 -221.658 -220.702 -221.256 -222.581 -221.035 -218.472 -212.557 -210.890 
-207.546 -207.576 -207.085 -208.247 -210.070 -210.535 -211.964 -213.207 -212.577 -212.376 -213.517 -214.369 -214.817 -215.130 -215.387 -215.805 -214.354 -211.343 -210.971 -211.361 -211.629 -213.355 -215.806 -216.150 -216.142 -218.395 -217.216 -213.048 -211.278 -209.480 -209.429 -207.782 -207.856 -211.302 -221.931 -230.318 -232.422 -232.912 -236.392 -238.005 -236.507 -235.504 -233.922 -231.208 -228.231 -226.189 -223.559 -221.580 -219.085 -222.819 -226.948 -226.160 -224.193 -222.617 -222.227 -220.983 -220.122 -220.101 -219.863 -217.821 -215.822 -215.234 -215.508 -215.350 -213.366 -217.879 -220.021 -218.962 -220.786 -225.148 -222.632 -222.699 -224.043 -222.403 -220.516 -215.898 -212.300 
-207.680 -207.571 -206.986 -207.972 -210.038 -210.461 -211.631 -214.110 -213.991 -212.714 -213.756 -214.586 -215.302 -215.629 -215.886 -216.546 -215.417 -211.693 -211.324 -211.671 -212.243 -214.047 -216.006 -216.494 -216.667 -215.941 -214.476 -212.297 -210.862 -209.758 -209.197 -206.953 -205.805 -208.176 -218.695 -229.063 -232.800 -235.757 -237.134 -238.494 -239.720 -237.666 -234.884 -231.123 -227.832 -224.758 -222.734 -221.379 -220.699 -220.269 -221.586 -223.407 -221.785 -220.616 -221.660 -221.137 -219.625 -219.125 -218.866 -217.608 -215.803 -214.635 -214.765 -214.432 -213.497 -218.462 -222.234 -221.712 -224.021 -227.325 -224.675 -223.392 -224.737 -222.999 -220.735 -216.723 -214.190 
-206.516 -206.540 -207.051 -207.557 -209.350 -210.703 -211.337 -212.823 -214.236 -214.076 -215.650 -216.540 -217.016 -217.191 -217.208 -216.802 -215.254 -210.578 -212.720 -213.175 -213.370 -215.713 -217.771 -215.021 -214.374 -213.232 -214.812 -213.717 -212.420 -209.515 -206.096 -207.230 -207.100 -210.313 -217.671 -227.390 -231.065 -232.185 -230.561 -235.994 -237.922 -238.288 -235.554 -231.902 -228.581 -224.828 -219.220 -221.312 -221.675 -219.129 -218.556 -219.512 -220.352 -218.537 -218.170 -219.880 -219.657 -218.370 -216.780 -212.480 -216.066 -216.401 -220.525 -220.547 -220.191 -217.347 -219.837 -219.720 -221.722 -224.948 -224.173 -223.231 -224.803 -222.293 -219.713 -222.926 -219.963 
-206.185 -206.070 -206.078 -207.816 -209.041 -210.240 -211.485 -212.325 -213.753 -214.930 -216.209 -217.008 -217.489 -217.653 -217.721 -217.370 -215.932 -210.780 -211.524 -214.104 -214.303 -215.670 -218.201 -215.335 -212.550 -210.837 -211.520 -212.799 -211.210 -209.985 -204.572 -207.107 -208.303 -211.626 -218.276 -226.002 -230.100 -229.384 -223.670 -228.088 -234.436 -235.704 -236.443 -232.779 -231.263 -227.901 -222.009 -222.503 -225.430 -220.674 -217.971 -217.139 -217.224 -218.963 -218.583 -217.453 -219.599 -217.800 -217.855 -212.958 -212.622 -216.260 -219.677 -221.379 -221.280 -218.937 -216.852 -216.977 -218.709 -221.747 -221.480 -220.053 -221.876 -220.510 -217.561 -221.440 -220.790 
-206.523 -207.228 -205.762 -207.059 -209.449 -210.222 -211.287 -212.314 -214.017 -215.647 -215.998 -216.391 -216.207 -216.584 -216.773 -217.157 -215.812 -212.238 -211.445 -212.889 -214.866 -215.291 -216.504 -213.681 -210.944 -209.163 -208.213 -208.167 -203.742 -203.508 -203.428 -208.981 -212.167 -212.755 -217.853 -224.291 -229.763 -229.278 -213.648 -217.016 -223.470 -229.558 -232.127 -233.946 -233.706 -232.497 -228.632 -229.536 -232.094 -225.297 -220.490 -217.607 -216.846 -218.075 -221.138 -220.703 -219.416 -217.016 -216.470 -218.870 -217.004 -215.900 -215.479 -216.125 -214.711 -213.615 -212.200 -213.145 -214.289 -216.503 -217.597 -215.703 -210.788 -212.928 -213.203 -218.490 -217.209 
-206.308 -207.048 -205.559 -206.098 -208.744 -209.763 -210.781 -211.901 -214.102 -215.949 -215.957 -216.028 -215.715 -215.528 -215.724 -215.919 -214.930 -211.664 -210.410 -211.329 -213.390 -213.365 -213.865 -211.864 -208.984 -206.946 -203.867 -203.426 -202.343 -200.000 -201.127 -203.277 -210.166 -212.940 -216.168 -221.347 -224.994 -227.441 -218.322 -208.891 -214.570 -219.998 -226.167 -229.566 -230.864 -231.409 -229.383 -227.235 -230.212 -228.489 -224.709 -223.980 -221.883 -222.340 -225.609 -222.469 -218.203 -217.512 -216.240 -218.425 -215.518 -213.802 -214.298 -213.866 -212.502 -209.478 -207.916 -207.865 -207.450 -209.263 -210.380 -209.841 -204.673 -203.891 -205.867 -208.607 -210.455 
-207.771 -206.482 -205.097 -205.496 -207.747 -208.940 -210.183 -211.437 -213.680 -216.072 -215.933 -215.832 -215.392 -215.059 -214.834 -214.712 -213.802 -211.024 -209.561 -209.881 -212.070 -211.868 -210.903 -209.325 -207.521 -205.029 -201.394 -197.738 -199.173 -199.613 -200.353 -200.380 -203.820 -211.462 -215.532 -218.973 -221.382 -222.068 -218.897 -213.430 -208.033 -212.248 -218.124 -223.972 -225.262 -226.532 -227.423 -226.768 -225.848 -225.799 -226.359 -227.815 -226.510 -226.007 -229.362 -227.501 -217.655 -216.538 -216.853 -218.368 -215.423 -210.653 -211.891 -212.200 -211.892 -208.803 -205.250 -203.129 -201.662 -200.629 -201.730 -201.743 -198.752 -197.766 -198.184 -197.678 -197.246 
-207.009 -205.663 -205.007 -205.041 -206.875 -208.581 -209.932 -211.369 -213.522 -215.869 -215.655 -215.519 -214.927 -214.393 -214.241 -214.818 -214.037 -211.815 -209.940 -210.041 -212.522 -212.084 -210.614 -209.208 -207.613 -205.982 -202.218 -198.441 -200.967 -201.075 -200.476 -199.502 -202.379 -209.651 -211.994 -214.646 -216.059 -217.863 -217.327 -212.997 -208.059 -210.825 -216.792 -222.652 -223.383 -224.727 -225.739 -225.439 -224.412 -223.504 -224.040 -225.370 -223.056 -222.501 -226.308 -225.505 -218.954 -217.524 -217.465 -218.508 -215.617 -210.840 -211.370 -211.780 -211.577 -207.826 -203.660 -201.341 -200.229 -199.328 -198.620 -199.511 -199.085 -197.433 -197.330 -196.717 -196.109 
-206.101 -204.749 -203.913 -203.934 -205.326 -207.423 -208.674 -209.996 -211.836 -214.161 -214.728 -214.491 -213.871 -213.468 -213.351 -214.195 -214.098 -212.313 -209.663 -209.163 -211.698 -212.910 -211.311 -208.759 -206.369 -204.135 -202.397 -204.832 -214.575 -212.879 -211.124 -202.632 -201.732 -207.441 -209.454 -210.413 -211.356 -212.533 -213.426 -213.564 -209.176 -211.036 -212.033 -218.145 -218.826 -221.119 -222.329 -221.060 -220.065 -218.393 -218.165 -219.365 -218.053 -218.244 -222.714 -225.345 -221.027 -219.834 -220.326 -221.620 -220.565 -215.972 -212.119 -213.038 -213.085 -209.361 -204.638 -202.166 -199.612 -199.084 -198.435 -197.579 -197.516 -197.649 -197.348 -197.480 -197.042 
-204.107 -203.738 -202.526 -202.273 -202.912 -205.530 -207.284 -207.223 -208.844 -210.791 -212.027 -212.275 -211.644 -211.491 -211.767 -213.391 -213.493 -212.588 -209.781 -208.075 -210.085 -211.583 -212.495 -209.357 -205.774 -200.422 -198.709 -204.209 -226.365 -231.075 -225.649 -215.767 -206.606 -206.559 -206.458 -206.760 -206.820 -207.538 -208.435 -210.322 -211.374 -212.172 -211.051 -209.688 -208.949 -210.497 -215.496 -213.557 -210.644 -207.225 -206.121 -206.699 -206.970 -209.187 -218.194 -222.058 -223.794 -222.706 -223.020 -225.552 -224.860 -223.643 -217.421 -214.329 -215.481 -212.080 -207.973 -205.290 -202.686 -200.067 -199.327 -198.556 -197.023 -197.047 -197.260 -198.315 -198.584 
-202.734 -202.723 -201.981 -201.146 -201.499 -202.630 -205.083 -205.749 -207.551 -209.504 -210.897 -210.999 -209.670 -209.557 -209.360 -209.590 -209.930 -209.006 -207.183 -204.558 -205.311 -208.467 -209.780 -205.850 -205.099 -204.100 -198.348 -202.152 -222.486 -233.992 -233.839 -235.454 -226.206 -216.706 -211.273 -207.886 -209.861 -210.751 -212.380 -210.053 -210.462 -209.406 -208.528 -206.084 -204.995 -205.861 -210.474 -209.192 -205.838 -204.427 -201.933 -202.160 -203.169 -206.236 -214.163 -217.889 -220.005 -219.149 -218.392 -220.011 -221.934 -220.966 -222.346 -219.028 -219.647 -217.114 -213.889 -212.688 -210.153 -207.655 -205.303 -204.950 -204.784 -203.040 -202.007 -197.858 -198.782 
-201.798 -201.684 -201.041 -200.678 -200.452 -201.083 -202.036 -203.514 -205.352 -207.791 -209.101 -209.070 -207.191 -206.622 -205.759 -205.079 -204.095 -203.259 -201.656 -200.084 -199.402 -201.219 -204.811 -201.032 -199.240 -202.121 -198.867 -193.351 -212.830 -226.274 -233.661 -236.262 -237.480 -226.081 -218.492 -210.958 -213.556 -214.010 -215.560 -214.071 -210.972 -208.588 -205.990 -204.139 -204.134 -203.721 -207.599 -205.981 -202.499 -201.899 -200.826 -200.247 -203.284 -204.699 -211.315 -214.331 -215.524 -214.592 -214.041 -213.780 -215.002 -217.201 -219.706 -221.043 -221.372 -218.856 -215.816 -214.958 -213.385 -211.079 -209.129 -207.599 -207.985 -207.308 -205.531 -201.403 -198.053 
-200.960 -200.854 -200.078 -199.909 -200.017 -199.310 -199.601 -199.968 -200.457 -201.599 -200.942 -200.353 -197.501 -196.023 -194.519 -189.622 -188.176 -186.670 -185.872 -184.516 -183.641 -183.643 -185.644 -186.148 -183.522 -183.402 -185.050 -181.702 -177.180 -193.497 -204.008 -208.774 -213.071 -219.359 -214.567 -212.679 -218.183 -219.793 -217.490 -216.113 -213.974 -211.093 -208.099 -204.768 -206.251 -206.594 -206.254 -204.321 -200.288 -201.968 -201.191 -199.687 -205.802 -208.390 -208.615 -210.696 -211.392 -209.906 -209.496 -209.975 -209.057 -210.055 -215.382 -216.813 -216.963 -215.279 -212.285 -207.602 -207.534 -206.569 -207.228 -205.873 -205.523 -206.052 -205.421 -202.489 -199.018 
-200.870 -200.879 -199.384 -199.096 -199.403 -198.378 -197.632 -197.666 -196.881 -196.820 -194.241 -191.135 -187.581 -185.077 -183.533 -179.329 -175.225 -173.231 -172.296 -171.250 -171.164 -171.410 -169.911 -170.325 -171.973 -170.933 -174.052 -173.847 -168.205 -176.181 -182.577 -185.665 -191.615 -200.698 -205.954 -213.205 -218.759 -220.893 -217.964 -216.267 -214.601 -213.054 -209.681 -205.934 -205.753 -206.639 -205.956 -204.029 -199.928 -201.615 -201.940 -200.648 -205.269 -209.312 -209.912 -209.166 -209.163 -208.042 -206.774 -207.477 -207.926 -207.300 -211.224 -214.003 -214.153 -212.549 -210.404 -205.948 -203.003 -203.433 -204.179 -204.970 -204.685 -203.932 -204.274 -202.763 -199.887 
-201.287 -201.379 -199.533 -199.001 -199.272 -198.170 -197.087 -196.696 -195.979 -194.428 -190.331 -184.849 -178.217 -174.494 -171.803 -169.736 -167.032 -163.761 -163.489 -164.020 -161.634 -163.506 -158.463 -152.179 -96.587 -74.379 -65.196 -96.026 -153.665 -162.906 -167.620 -169.285 -176.566 -187.998 -197.076 -213.361 -218.624 -220.850 -217.476 -215.273 -214.438 -213.602 -211.713 -207.716 -206.852 -206.324 -205.857 -204.387 -201.715 -202.172 -202.495 -201.529 -205.601 -208.815 -210.246 -210.015 -208.639 -207.458 -206.802 -206.921 -207.420 -208.149 -210.207 -211.754 -212.900 -211.225 -208.980 -204.788 -202.428 -201.820 -202.551 -203.547 -204.455 -203.664 -202.669 -201.915 -199.935 
-193.806 -193.840 -193.445 -191.092 -190.042 -186.788 -184.573 -181.612 -175.500 -171.748 -164.319 -160.321 -155.365 -153.412 -150.876 -145.948 -154.304 -156.207 -144.057 -127.777 -123.590 -97.520 -87.798 -82.292 -68.075 -56.717 -48.275 -41.055 -21.728 -44.198 -84.718 -127.739 -111.468 -154.209 -152.602 -201.220 -207.878 -213.002 -207.280 -213.122 -213.526 -215.130 -214.261 -212.403 -210.535 -209.566 -208.362 -208.001 -206.626 -198.003 -200.114 -201.369 -203.820 -206.565 -207.038 -207.835 -206.972 -205.750 -204.596 -204.088 -203.715 -204.003 -203.858 -206.151 -207.762 -207.953 -205.778 -202.360 -201.430 -201.352 -201.773 -201.655 -200.717 -200.694 -199.357 -196.280 -195.942 
-187.792 -186.375 -185.767 -182.846 -179.905 -176.327 -172.682 -168.425 -161.124 -152.123 -145.411 -139.989 -136.596 -135.126 -141.258 -151.280 -106.668 -117.511 -113.801 -112.994 -95.197 -95.598 -91.197 -84.884 -78.170 -67.958 -55.044 -33.624 -21.365 -20.060 -6.531 -10.349 -82.030 -113.282 -154.167 -151.068 -194.084 -205.716 -198.211 -203.399 -210.505 -212.682 -213.177 -212.312 -211.058 -210.557 -209.170 -207.479 -206.954 -200.859 -196.059 -199.865 -204.520 -205.597 -204.629 -204.310 -204.584 -203.538 -202.360 -201.229 -201.127 -200.643 -200.075 -199.716 -202.227 -202.116 -202.336 -199.019 -198.090 -199.346 -199.426 -201.068 -198.540 -197.358 -197.053 -194.623 -192.725 
-182.913 -181.822 -177.316 -172.458 -165.285 -162.065 -158.625 -155.525 -148.413 -139.799 -136.753 -133.390 -133.495 -131.841 -103.419 -93.871 -124.549 -120.509 -112.401 -103.759 -79.827 -76.444 -80.420 -83.242 -74.773 -58.957 -53.804 -47.147 -42.095 -33.922 -18.064 1.420 -64.643 -94.057 -137.442 -153.781 -167.994 -186.885 -189.755 -194.907 -202.279 -204.910 -205.769 -205.527 -205.416 -205.554 -207.606 -204.442 -200.986 -198.216 -195.361 -197.179 -204.725 -207.482 -203.464 -201.254 -200.160 -199.508 -198.478 -197.418 -198.310 -198.797 -198.160 -196.972 -195.886 -194.651 -194.239 -195.144 -193.397 -193.216 -191.805 -193.458 -197.579 -195.675 -194.914 -194.675 -194.013 
-176.632 -175.649 -170.081 -165.390 -157.952 -152.480 -148.364 -142.702 -142.253 -134.978 -130.986 -130.898 -131.273 -134.097 -136.125 -132.979 -124.925 -113.781 -108.949 -107.303 -101.507 -81.194 -58.041 -65.894 -71.573 -70.013 -59.579 -52.091 -48.822 -38.545 -23.031 -11.198 -11.604 -63.032 -98.596 -154.780 -150.757 -162.210 -169.923 -184.953 -192.487 -195.729 -198.448 -198.717 -201.243 -200.375 -201.275 -198.996 -195.423 -199.232 -198.539 -200.028 -204.434 -208.030 -203.500 -200.269 -198.440 -197.191 -196.294 -195.193 -193.933 -195.148 -194.768 -194.493 -192.937 -191.688 -189.633 -189.453 -190.564 -189.585 -188.261 -188.687 -192.863 -192.345 -191.293 -191.005 -190.048 
-171.239 -168.907 -162.324 -156.616 -151.725 -147.016 -142.686 -134.082 -130.521 -131.307 -131.221 -153.387 -137.332 -135.946 -131.323 -124.417 -117.109 -104.321 -95.971 -96.618 -96.880 -92.229 -75.371 -47.553 -43.943 -47.030 -41.691 -35.174 -31.394 -29.092 -24.593 -10.670 -6.740 -72.068 -102.096 -134.684 -152.731 -147.416 -150.247 -166.413 -181.703 -185.426 -188.732 -191.603 -195.800 -197.770 -195.335 -192.245 -189.777 -197.174 -200.872 -202.558 -206.609 -208.291 -203.585 -199.893 -197.931 -196.687 -195.252 -193.977 -192.231 -190.496 -190.242 -190.192 -190.299 -189.436 -188.483 -186.537 -186.191 -187.308 -186.112 -186.499 -189.415 -188.603 -186.853 -186.489 -185.371 
-164.243 -161.633 -153.796 -147.976 -143.049 -138.456 -135.725 -133.488 -131.107 -146.295 -150.412 -115.286 -119.814 -131.877 -130.269 -124.266 -120.576 -115.628 -99.019 -79.987 -79.313 -85.375 -83.350 -77.183 -66.763 -53.722 -33.926 -23.758 -17.648 -13.333 -15.660 -9.115 -8.704 -64.974 -102.691 -116.871 -157.302 -148.811 -146.620 -155.455 -169.562 -178.462 -182.960 -186.833 -189.247 -191.178 -188.960 -188.902 -188.788 -196.893 -200.661 -202.437 -206.635 -208.351 -203.599 -199.846 -197.681 -196.612 -194.736 -190.159 -189.352 -187.993 -188.056 -188.356 -188.855 -188.055 -187.175 -186.580 -185.344 -185.642 -184.630 -184.268 -185.899 -185.728 -184.268 -184.518 -182.840 
-153.867 -150.703 -142.354 -139.602 -134.609 -131.270 -150.731 -151.090 -157.486 -144.042 -109.120 -91.172 -99.773 -121.284 -128.547 -126.052 -116.252 -114.413 -110.314 -101.922 -92.078 -87.200 -69.480 -64.669 -64.756 -56.057 -48.618 -41.148 -33.507 -26.855 -20.020 -4.834 2.029 -18.164 -52.992 -78.483 -116.108 -152.707 -144.754 -151.431 -159.556 -169.868 -177.844 -182.659 -184.459 -185.817 -183.785 -187.206 -189.544 -197.399 -200.699 -202.404 -206.216 -208.057 -203.662 -199.018 -196.491 -195.424 -193.756 -189.106 -186.249 -185.565 -185.312 -185.042 -185.873 -185.931 -185.369 -184.967 -183.898 -183.468 -183.024 -182.678 -183.615 -183.002 -182.232 -182.830 -181.496 
-136.804 -135.154 -135.631 -132.679 -152.540 -156.080 -157.947 -142.125 -103.221 -109.252 -111.647 -91.197 -75.903 -98.653 -121.083 -124.116 -112.446 -99.140 -106.200 -104.207 -99.829 -94.453 -94.831 -88.510 -75.542 -55.121 -31.641 -26.953 -22.475 -18.790 -12.020 0.246 8.096 -11.166 -40.850 -54.854 -84.912 -143.529 -152.417 -144.900 -151.795 -163.418 -172.008 -179.455 -180.252 -181.019 -180.386 -185.428 -191.858 -199.036 -202.069 -202.487 -205.909 -207.449 -203.365 -199.091 -194.576 -193.358 -191.673 -188.058 -185.240 -183.456 -182.536 -181.820 -181.020 -182.049 -182.364 -182.849 -181.664 -180.380 -180.956 -181.125 -181.818 -181.231 -180.529 -182.084 -180.975 
-131.501 -147.164 -151.114 -153.617 -149.528 -128.498 -105.603 -107.617 -80.789 -81.086 -95.407 -93.643 -54.775 -102.811 -121.484 -120.607 -96.330 -80.030 -86.357 -93.435 -93.919 -73.713 -79.536 -72.191 -68.942 -72.277 -56.879 -49.281 -36.970 -28.333 -18.410 -2.515 -1.505 -50.428 -84.951 -93.315 -101.422 -112.928 -157.577 -145.129 -151.511 -158.944 -165.083 -172.744 -177.386 -177.698 -177.228 -185.166 -191.697 -197.204 -200.285 -200.638 -202.090 -204.063 -201.134 -197.313 -193.204 -190.750 -189.492 -187.029 -185.287 -183.652 -183.002 -181.793 -180.403 -182.531 -182.819 -181.321 -177.274 -173.467 -172.441 -174.380 -176.076 -179.636 -178.988 -180.444 -179.967 
-160.176 -156.064 -149.486 -127.747 -129.065 -113.751 -101.933 -91.233 -87.088 -60.072 -67.556 -78.414 -60.596 -118.072 -116.289 -106.911 -85.534 -61.243 -52.733 -69.946 -88.937 -72.285 -57.102 -47.804 -45.105 -56.824 -62.373 -46.852 -38.593 -27.222 -17.694 -3.681 -16.764 -48.981 -82.150 -97.939 -108.463 -113.544 -127.624 -154.286 -146.589 -153.188 -159.708 -166.044 -171.208 -175.431 -174.994 -182.350 -190.481 -195.060 -197.709 -198.052 -199.606 -200.672 -198.537 -196.034 -192.601 -189.813 -186.602 -184.741 -184.137 -183.590 -183.190 -182.025 -180.226 -181.932 -182.983 -180.659 -176.352 -167.366 -164.480 -163.485 -167.419 -173.693 -177.284 -178.650 -178.047 
-160.176 -124.640 -87.359 -99.997 -122.645 -115.827 -90.170 -84.071 -71.864 -59.578 -47.081 -47.322 -75.969 -113.454 -112.307 -105.156 -90.287 -75.039 -52.773 -39.983 -57.904 -68.509 -57.977 -35.482 -25.512 -44.875 -52.900 -32.383 -20.723 -12.526 -0.838 -19.701 -67.285 -82.208 -76.821 -89.117 -106.170 -112.658 -118.604 -127.280 -152.016 -146.720 -153.195 -161.103 -166.380 -171.327 -175.058 -180.384 -187.043 -190.712 -193.482 -194.178 -196.848 -198.388 -198.466 -196.367 -193.659 -190.660 -187.077 -180.246 -180.457 -180.551 -182.093 -181.061 -178.823 -179.407 -179.938 -175.111 -171.570 -166.427 -162.581 -159.731 -156.588 -168.499 -175.234 -175.192 -174.913 
-160.176 -101.977 -78.670 -77.433 -115.653 -115.660 -109.390 -96.282 -75.822 -57.197 -43.698 -37.287 -75.521 -107.933 -112.670 -98.550 -94.436 -82.256 -66.411 -38.994 -30.926 -40.006 -51.466 -42.996 -18.333 -24.433 -44.752 -35.582 -22.499 -7.117 2.337 -58.516 -75.178 -83.756 -92.920 -99.613 -103.684 -110.301 -112.205 -112.943 -118.356 -148.372 -149.794 -156.597 -160.720 -167.312 -172.393 -178.091 -183.724 -187.389 -189.523 -190.368 -191.821 -194.911 -195.785 -195.981 -193.494 -192.530 -188.086 -179.037 -177.383 -178.164 -179.246 -179.771 -177.731 -178.145 -178.026 -170.826 -166.959 -163.235 -163.387 -164.876 -164.972 -166.221 -175.043 -173.755 -172.757 
-160.176 -112.441 -60.414 -60.061 -102.213 -94.687 -97.434 -94.692 -84.938 -67.194 -44.088 -38.312 -62.894 -91.314 -111.357 -102.202 -86.672 -80.680 -69.489 -53.793 -34.127 -23.506 -27.068 -36.401 -22.809 -9.167 -25.263 -32.197 -23.765 -6.605 3.376 -46.348 -63.974 -67.701 -92.631 -97.997 -103.242 -108.013 -123.262 -136.306 -141.758 -143.728 -144.760 -152.268 -155.659 -161.076 -169.009 -175.113 -180.598 -184.142 -186.207 -186.758 -187.285 -188.644 -191.646 -193.008 -193.233 -192.753 -190.136 -179.030 -175.897 -176.613 -177.101 -177.194 -176.581 -177.283 -177.324 -168.897 -163.665 -160.639 -162.079 -165.944 -172.602 -174.965 -175.904 -174.107 -172.254 
-160.176 -112.209 -68.878 -50.308 -73.990 -75.816 -78.515 -77.897 -72.912 -67.816 -53.725 -37.570 -59.748 -92.551 -103.946 -101.480 -90.024 -82.062 -64.712 -55.242 -40.850 -24.334 -15.737 -14.231 -18.977 -7.397 -1.476 -13.468 -15.939 7.418 15.174 -5.302 -14.984 -33.333 -74.849 -95.620 -103.286 -113.916 -128.306 -139.937 -142.558 -144.597 -145.988 -143.337 -151.904 -153.656 -159.302 -167.940 -174.298 -179.716 -182.790 -184.219 -184.551 -185.512 -187.985 -189.713 -190.148 -188.922 -186.705 -179.498 -174.585 -174.590 -174.315 -173.307 -171.991 -172.836 -173.787 -173.473 -169.050 -167.174 -165.612 -166.220 -168.833 -173.398 -174.976 -174.873 -173.540 
-160.176 -90.148 -68.168 -52.139 -48.524 -51.756 -52.667 -62.316 -43.314 -50.775 -39.976 -33.461 -65.245 -71.219 -86.049 -101.183 -96.826 -94.700 -89.267 -73.415 -63.604 -37.270 -23.104 -12.880 -5.554 -1.316 4.778 8.968 5.342 16.396 15.012 -9.868 -48.747 -63.020 -103.616 -111.711 -116.366 -114.353 -125.085 -139.067 -142.269 -145.120 -146.540 -147.211 -144.692 -149.675 -152.772 -158.472 -168.325 -175.282 -178.601 -181.248 -182.407 -182.507 -184.605 -185.180 -185.972 -184.402 -182.741 -176.484 -173.946 -172.726 -172.884 -172.770 -170.470 -170.542 -172.536 -174.131 -172.073 -170.802 -170.365 -168.989 -168.589 -171.731 -174.897 -175.071 -174.215 
-160.176 -82.409 -48.916 -46.210 -43.121 -41.039 -40.806 -41.093 -37.705 -37.059 -42.428 -36.515 -39.980 -40.380 -55.752 -93.415 -85.580 -85.335 -91.109 -86.526 -80.164 -74.990 -70.157 -59.305 -33.604 -16.558 -2.079 8.421 14.316 17.996 -15.026 -73.423 -85.801 -97.257 -103.377 -111.280 -120.925 -126.583 -133.245 -137.178 -141.089 -142.251 -144.793 -145.050 -141.660 -146.399 -148.908 -152.539 -159.672 -172.050 -176.380 -178.215 -180.564 -181.278 -180.507 -180.343 -179.318 -176.794 -174.953 -172.842 -171.018 -170.436 -172.579 -172.870 -173.001 -173.030 -174.392 -177.921 -176.429 -172.745 -172.798 -172.409 -171.020 -173.342 -175.900 -176.251 -175.521 
-160.176 -135.879 -58.073 -61.578 -54.583 -43.345 -49.336 -71.710 -96.563 -94.095 -90.379 -70.167 -40.125 -27.842 -40.709 -82.655 -77.201 -66.546 -87.805 -81.294 -76.711 -74.506 -60.682 -58.029 -55.927 -41.940 -25.147 -24.557 -13.258 6.338 -44.676 -79.977 -93.111 -102.966 -113.083 -114.442 -112.426 -119.049 -133.001 -137.176 -138.936 -141.177 -143.728 -143.927 -143.541 -141.327 -148.752 -152.581 -157.630 -167.458 -174.105 -176.136 -179.273 -180.874 -181.159 -178.922 -175.986 -173.714 -171.026 -168.744 -169.174 -169.378 -172.327 -172.641 -172.147 -172.551 -172.634 -174.721 -174.911 -171.463 -171.504 -172.350 -172.360 -173.731 -176.776 -178.673 -177.428 
-160.176 -157.055 -96.720 -86.967 -68.273 -55.158 -95.347 -113.564 -118.632 -111.571 -94.265 -86.750 -59.055 -33.277 -29.069 -57.704 -71.065 -47.140 -75.999 -83.906 -73.417 -49.059 -31.118 -39.910 -50.069 -47.307 -40.055 -22.465 -10.824 5.779 -43.416 -81.721 -93.822 -106.075 -112.620 -117.420 -125.526 -128.127 -131.617 -136.187 -137.506 -142.503 -143.815 -144.875 -145.354 -143.963 -143.784 -152.451 -156.448 -164.434 -170.206 -173.752 -177.799 -180.038 -180.978 -179.923 -175.092 -172.412 -169.630 -166.722 -166.789 -167.868 -171.350 -172.486 -171.197 -171.578 -171.947 -171.713 -170.818 -169.162 -169.400 -170.438 -172.369 -174.319 -176.821 -179.516 -179.537 
-160.176 -154.439 -104.669 -68.296 -63.233 -95.625 -120.597 -118.419 -117.299 -132.532 -129.063 -113.477 -78.735 -56.072 -26.321 -39.188 -56.685 -32.357 -40.561 -73.478 -76.553 -67.313 -25.552 -11.578 -21.484 -34.074 -32.816 -8.419 10.282 4.146 -39.440 -69.442 -81.735 -98.440 -107.202 -113.774 -120.412 -127.956 -135.197 -136.417 -141.224 -143.425 -144.707 -145.533 -146.556 -146.504 -145.405 -147.275 -152.223 -156.634 -161.760 -164.537 -175.926 -179.163 -180.100 -179.355 -176.005 -173.008 -170.055 -165.345 -165.746 -166.845 -167.921 -169.451 -168.498 -170.413 -171.016 -170.877 -170.114 -168.815 -168.557 -169.355 -170.819 -172.894 -175.623 -179.627 -179.752 
-160.176 -148.051 -87.793 -86.489 -116.554 -131.272 -124.308 -105.241 -94.582 -109.834 -118.307 -105.060 -84.233 -78.133 -46.822 -27.099 -45.881 -32.144 -15.747 -33.621 -64.025 -69.004 -50.991 -19.885 -0.510 -23.833 -24.073 -1.735 12.482 -16.710 -79.004 -90.818 -101.184 -108.534 -109.453 -110.254 -115.323 -125.071 -133.759 -138.877 -140.436 -138.603 -143.431 -146.054 -146.983 -147.312 -147.144 -147.082 -148.371 -152.551 -155.071 -157.192 -167.265 -176.764 -178.178 -177.738 -175.013 -173.587 -170.649 -166.221 -164.635 -165.829 -166.173 -166.844 -166.202 -168.622 -170.202 -170.162 -170.039 -168.944 -168.022 -168.385 -169.584 -170.924 -172.894 -176.446 -178.075 
-160.176 -123.699 -123.724 -136.936 -132.675 -122.195 -112.227 -91.510 -80.266 -83.373 -95.807 -99.000 -102.044 -93.624 -90.223 -50.940 -23.884 -26.701 -11.344 -11.106 -41.904 -62.103 -66.113 -38.685 1.851 -0.234 -16.053 -7.533 5.063 -21.209 -81.108 -95.115 -104.961 -112.239 -118.247 -123.100 -128.956 -132.890 -134.028 -135.327 -130.153 -135.750 -140.127 -141.928 -147.769 -146.723 -146.718 -147.695 -145.329 -149.149 -151.636 -152.536 -160.812 -168.553 -173.526 -174.224 -172.808 -172.302 -170.827 -167.250 -165.617 -164.976 -163.968 -164.078 -164.700 -167.459 -169.334 -169.723 -169.682 -169.544 -168.082 -167.533 -168.507 -169.355 -170.420 -171.644 -172.659 
-160.176 -144.584 -134.107 -135.472 -110.493 -111.388 -115.024 -105.366 -94.995 -80.998 -77.717 -91.899 -93.216 -96.057 -100.380 -84.165 -41.486 -14.373 -7.176 -0.820 -14.352 -36.667 -57.878 -43.907 -8.757 0.409 1.302 11.072 14.583 -2.484 -61.217 -86.295 -103.078 -112.274 -118.472 -124.643 -130.400 -129.387 -123.922 -115.912 -118.368 -130.190 -136.967 -143.691 -145.804 -147.866 -147.898 -148.008 -148.505 -143.998 -148.168 -149.723 -152.686 -160.624 -166.378 -168.556 -167.603 -167.516 -167.343 -165.593 -163.889 -163.190 -162.359 -162.178 -162.964 -167.283 -168.871 -168.676 -168.391 -168.114 -166.970 -166.621 -167.799 -168.746 -169.430 -170.180 -170.346 
-160.176 -149.903 -112.557 -104.826 -87.246 -96.985 -115.762 -95.439 -85.225 -74.943 -64.437 -66.953 -78.692 -82.556 -96.756 -96.262 -68.303 -47.536 -23.176 2.327 3.085 -34.539 -51.080 -49.383 -46.943 -41.220 -26.056 -4.734 18.409 -8.848 -61.177 -83.778 -103.798 -110.501 -115.426 -122.728 -120.011 -114.770 -106.844 -113.413 -125.135 -133.667 -144.863 -149.145 -149.075 -148.037 -148.097 -148.376 -149.376 -147.024 -144.924 -146.567 -149.730 -152.512 -158.830 -162.483 -162.348 -162.649 -162.485 -162.751 -163.397 -162.486 -161.557 -160.616 -161.343 -164.913 -168.099 -167.543 -167.018 -166.383 -165.409 -165.506 -166.980 -167.703 -168.969 -169.534 -169.324 
-160.176 -156.960 -97.030 -86.371 -66.040 -81.694 -108.498 -99.836 -93.094 -84.049 -72.371 -48.912 -55.091 -75.400 -94.323 -97.906 -84.162 -71.154 -50.276 -22.641 10.280 -18.973 -37.959 -35.538 -28.268 -31.286 -16.393 -0.610 5.170 -64.438 -83.568 -93.544 -104.256 -113.356 -118.682 -119.728 -106.628 -116.651 -118.240 -125.787 -137.226 -144.855 -149.239 -148.891 -148.895 -148.485 -148.070 -147.718 -148.024 -147.854 -147.514 -143.738 -147.280 -150.066 -151.806 -157.197 -159.808 -161.545 -161.516 -160.449 -162.922 -164.254 -163.145 -161.891 -160.658 -161.918 -164.186 -164.091 -163.826 -163.509 -163.591 -164.018 -166.017 -165.867 -166.537 -169.290 -169.115 
-160.176 -154.634 -95.955 -88.718 -65.367 -56.511 -71.802 -87.017 -81.537 -72.746 -75.721 -62.020 -30.487 -57.981 -95.871 -93.783 -87.662 -78.441 -62.930 -36.483 2.105 8.756 -20.522 -8.176 -6.224 -17.421 -18.147 11.141 -17.168 -73.924 -85.795 -96.649 -105.840 -111.956 -114.798 -113.622 -105.382 -131.056 -142.232 -142.388 -144.871 -147.279 -149.386 -149.199 -148.154 -148.444 -148.202 -148.083 -148.525 -147.964 -147.946 -149.197 -146.294 -148.921 -151.423 -154.496 -158.378 -159.609 -160.782 -159.925 -160.385 -163.127 -163.507 -162.301 -160.880 -161.914 -162.473 -161.601 -162.662 -162.540 -161.580 -162.249 -164.272 -164.575 -164.285 -166.454 -167.163 
-160.176 -152.585 -80.123 -78.949 -84.312 -73.856 -51.434 -54.499 -63.645 -56.729 -51.695 -56.188 -35.427 -44.117 -95.529 -94.557 -75.704 -74.155 -62.777 -39.763 -22.848 6.236 11.851 11.014 14.125 0.905 -13.885 10.368 -22.501 -70.950 -84.597 -95.580 -103.444 -109.751 -107.429 -101.009 -112.494 -133.564 -142.255 -150.123 -150.239 -149.911 -149.651 -149.757 -148.514 -148.599 -148.071 -147.889 -144.037 -147.055 -147.921 -147.684 -148.074 -147.642 -152.591 -154.759 -157.971 -158.805 -159.270 -159.499 -159.976 -160.798 -162.442 -162.202 -160.794 -161.945 -162.666 -160.977 -161.555 -163.059 -161.364 -160.992 -162.433 -162.648 -162.894 -164.171 -164.026 
-160.176 -157.206 -131.636 -127.483 -129.004 -114.515 -81.180 -52.632 -35.770 -33.348 -30.041 -38.436 -37.158 -33.700 -83.868 -92.075 -89.636 -69.306 -55.990 -42.770 -31.254 -11.740 19.976 34.339 35.576 14.117 0.639 17.325 -2.935 -38.002 -73.631 -87.834 -98.051 -106.524 -106.333 -88.812 -114.130 -131.047 -140.530 -149.118 -149.909 -149.941 -149.887 -149.756 -149.488 -148.773 -148.287 -145.976 -143.264 -145.846 -147.707 -148.217 -148.088 -147.793 -148.197 -149.465 -154.677 -155.683 -156.544 -157.527 -158.121 -158.551 -157.264 -159.214 -159.452 -159.930 -160.926 -160.497 -158.914 -159.432 -159.631 -159.112 -160.455 -160.994 -160.839 -160.617 -162.302 
-160.176 -157.085 -125.354 -118.243 -108.944 -108.796 -111.047 -92.203 -59.453 -42.701 -29.949 -21.401 -20.044 -16.347 -67.056 -83.101 -90.505 -85.191 -74.650 -44.733 -30.297 -18.754 -1.979 25.362 43.017 32.311 16.670 23.128 -44.177 -74.370 -87.820 -93.739 -101.793 -104.681 -100.163 -104.376 -129.769 -136.324 -144.093 -147.497 -149.607 -149.851 -149.628 -149.888 -149.842 -149.812 -148.576 -148.218 -145.779 -146.218 -147.443 -148.431 -148.830 -148.273 -148.500 -147.720 -147.674 -151.596 -153.488 -155.046 -156.087 -156.788 -156.195 -156.449 -158.676 -158.123 -158.749 -158.623 -158.387 -156.935 -156.969 -157.666 -158.925 -159.484 -159.618 -158.620 -159.597 
-151.586 -112.310 -109.632 -109.777 -94.181 -90.606 -97.981 -100.718 -86.064 -83.642 -69.884 -61.262 -33.052 -4.940 -44.087 -74.117 -81.608 -85.445 -80.039 -72.346 -69.655 -53.920 -45.501 -16.712 -0.663 34.998 40.446 -21.180 -79.262 -85.493 -96.504 -106.642 -105.603 -102.864 -109.400 -126.129 -133.580 -139.032 -144.315 -146.060 -149.652 -149.597 -149.751 -149.919 -150.818 -149.649 -147.957 -148.947 -148.528 -148.295 -148.348 -148.443 -148.450 -148.310 -148.451 -148.014 -147.843 -147.213 -147.392 -151.683 -153.213 -154.605 -155.622 -156.837 -158.984 -157.255 -156.061 -156.292 -156.475 -156.383 -156.197 -156.772 -157.946 -158.643 -158.957 -157.340 -158.015 
-160.178 -99.137 -94.530 -101.010 -97.340 -77.688 -87.286 -100.621 -88.371 -74.345 -61.317 -59.939 -53.046 -20.492 -21.304 -49.600 -69.378 -84.736 -79.920 -56.067 -54.535 -48.807 -44.139 -36.971 -12.576 27.654 40.465 -45.968 -78.854 -91.737 -101.100 -110.073 -112.814 -115.844 -116.554 -131.849 -135.286 -140.292 -143.329 -145.755 -149.132 -150.177 -149.873 -150.611 -147.977 -148.723 -149.310 -148.886 -148.643 -148.399 -148.398 -148.627 -148.596 -149.020 -147.881 -147.921 -147.573 -147.394 -148.209 -148.335 -151.285 -153.994 -155.155 -155.376 -157.007 -157.670 -155.811 -155.980 -155.749 -155.869 -155.842 -157.012 -158.469 -157.670 -157.902 -157.681 -156.080 
-160.176 -87.648 -80.113 -83.360 -88.235 -80.397 -93.453 -88.982 -76.445 -61.193 -43.639 -37.483 -38.954 -31.246 -3.391 -25.703 -61.563 -78.086 -81.185 -71.085 -71.033 -44.161 -19.853 -6.835 4.290 7.300 8.266 -2.953 -48.246 -66.171 -93.234 -103.001 -105.059 -118.423 -123.995 -129.111 -133.617 -139.221 -142.466 -144.838 -147.400 -149.522 -149.830 -150.538 -149.985 -150.947 -148.820 -148.777 -148.871 -148.463 -148.331 -149.085 -149.817 -146.455 -147.822 -147.793 -147.838 -146.838 -147.750 -148.880 -151.350 -153.487 -154.757 -155.448 -155.115 -155.601 -156.183 -156.330 -156.155 -155.665 -155.579 -156.280 -158.419 -157.730 -156.536 -156.796 -157.197 
-160.176 -74.364 -60.898 -58.575 -69.191 -64.147 -88.643 -80.456 -73.723 -64.663 -47.827 -24.236 -16.633 -16.475 -2.107 -31.531 -72.872 -75.712 -77.807 -77.509 -63.233 -64.095 -50.289 -36.633 -38.852 -33.129 -21.707 20.540 -28.765 -65.978 -87.110 -98.488 -115.314 -122.157 -125.406 -129.811 -133.868 -138.946 -141.875 -144.419 -146.641 -147.921 -148.378 -148.464 -147.909 -146.232 -148.147 -149.810 -149.535 -149.232 -149.307 -149.509 -149.557 -149.492 -148.960 -147.792 -147.154 -147.639 -148.161 -150.150 -150.530 -151.599 -152.892 -154.372 -155.262 -155.240 -155.759 -156.257 -156.099 -155.702 -155.566 -155.449 -155.795 -155.061 -153.939 -155.535 -156.921 
-160.176 -84.034 -64.271 -39.624 -40.702 -47.559 -62.968 -77.968 -58.735 -52.885 -47.171 -35.538 -12.691 -0.919 4.018 -41.944 -65.156 -70.290 -71.723 -65.027 -39.067 -56.027 -58.796 -57.744 -50.984 -34.285 -23.972 5.529 -6.634 -60.522 -87.467 -105.451 -117.488 -125.789 -128.873 -132.678 -138.054 -140.770 -143.825 -146.507 -148.040 -147.365 -148.314 -148.374 -148.343 -148.293 -149.448 -149.427 -149.424 -149.342 -149.577 -149.478 -149.461 -149.959 -149.021 -146.692 -147.622 -146.882 -147.583 -148.852 -148.302 -149.945 -151.097 -152.798 -154.455 -154.715 -154.658 -155.040 -155.001 -154.646 -154.516 -154.541 -154.156 -155.060 -153.677 -154.561 -156.199 
-160.176 -99.087 -86.469 -60.866 -31.074 -29.390 -61.673 -70.563 -53.258 -36.255 -26.759 -24.594 -15.351 11.396 12.167 -29.683 -56.637 -62.866 -65.707 -58.625 -54.787 -37.616 -24.640 -29.617 -31.938 -29.176 -7.076 18.105 -45.965 -91.197 -99.059 -102.175 -111.082 -127.317 -130.516 -133.030 -135.515 -137.788 -136.638 -145.159 -147.240 -146.986 -148.033 -148.340 -148.867 -148.273 -149.087 -149.164 -149.406 -149.218 -149.575 -149.654 -149.842 -147.471 -144.068 -146.767 -147.625 -147.442 -147.271 -146.876 -148.830 -148.602 -149.487 -151.086 -153.074 -153.432 -153.303 -152.915 -152.741 -152.351 -152.157 -152.097 -152.274 -153.809 -155.685 -155.809 -156.370 
-160.176 -112.923 -98.450 -81.790 -41.455 -18.799 -51.253 -61.488 -51.730 -52.970 -38.965 -12.448 2.735 17.914 -13.396 -36.498 -40.075 -58.976 -61.625 -62.582 -50.598 -44.774 -13.326 8.469 -2.692 -24.428 -15.427 11.074 -28.652 -53.306 -82.384 -106.848 -121.295 -125.832 -123.799 -126.706 -133.627 -139.187 -147.880 -144.339 -144.639 -147.493 -147.543 -148.574 -148.282 -147.977 -148.723 -149.194 -149.670 -149.069 -149.563 -149.654 -147.522 -147.687 -145.175 -147.460 -148.219 -148.099 -147.621 -147.072 -148.293 -148.276 -149.255 -149.893 -151.330 -151.464 -151.935 -152.497 -153.096 -153.139 -152.995 -152.866 -152.879 -152.820 -155.286 -158.404 -157.451 
-160.176 -93.404 -81.244 -66.298 -68.207 -70.843 -43.643 -33.774 -34.245 -31.954 -36.555 -30.637 7.868 -3.753 -31.400 -39.776 -47.691 -54.304 -57.013 -61.727 -47.861 -39.933 -30.708 -14.977 28.070 24.596 25.087 -38.465 -89.661 -83.270 -95.004 -108.531 -116.813 -118.736 -116.622 -120.667 -126.621 -135.465 -139.152 -143.080 -141.811 -147.386 -147.469 -147.912 -146.801 -147.507 -148.526 -149.024 -149.468 -149.334 -149.003 -148.211 -144.820 -143.398 -145.638 -147.053 -147.949 -147.982 -147.155 -147.640 -148.797 -149.265 -148.875 -149.822 -149.880 -149.857 -150.435 -151.816 -152.527 -153.517 -153.517 -153.427 -153.380 -153.290 -153.581 -157.706 -158.936 
-160.176 -89.025 -74.379 -106.795 -114.983 -108.804 -105.407 -63.010 -14.496 -11.505 -16.657 -25.210 9.508 -12.315 -16.368 -24.150 -27.070 -33.616 -50.311 -56.348 -57.613 -37.658 -25.287 -1.857 -6.222 -71.508 -47.253 -31.913 -81.965 -97.772 -111.197 -118.461 -115.411 -108.548 -110.551 -120.789 -127.825 -134.458 -138.875 -139.541 -143.671 -145.730 -147.430 -147.538 -146.006 -147.501 -148.193 -148.389 -148.933 -146.239 -147.494 -147.997 -148.142 -142.113 -146.760 -147.608 -147.615 -148.383 -148.635 -149.562 -149.302 -148.955 -147.243 -148.845 -148.973 -149.413 -150.224 -151.927 -152.060 -152.331 -153.371 -153.477 -153.446 -153.404 -153.676 -154.861 -156.629 
-157.702 -102.341 -114.433 -124.257 -112.993 -103.321 -103.151 -91.054 -31.296 4.627 -11.495 -7.833 18.993 3.136 10.709 -6.686 13.035 -27.128 -46.719 -54.043 -63.320 -60.166 -49.862 -49.697 -52.862 -96.803 -86.111 -75.087 -55.747 -91.560 -118.103 -123.981 -123.279 -122.042 -114.874 -118.410 -127.884 -132.904 -134.680 -137.611 -141.905 -147.107 -146.985 -147.660 -146.468 -147.942 -149.649 -149.239 -150.234 -142.930 -147.756 -146.269 -144.823 -138.558 -145.353 -147.857 -147.838 -148.374 -149.149 -149.878 -149.699 -150.347 -149.183 -147.610 -146.998 -148.002 -148.912 -150.749 -151.741 -151.601 -152.806 -152.962 -152.543 -152.507 -153.025 -154.697 -154.782 
-115.825 -131.450 -129.145 -123.201 -80.429 -54.607 -92.885 -90.084 -53.608 -3.251 7.573 3.179 18.828 25.014 32.995 18.947 22.580 -26.120 -46.492 -68.754 -85.665 -62.826 -56.561 -84.397 -73.212 -97.827 -103.687 -100.830 -118.468 -125.953 -129.809 -130.494 -130.147 -130.020 -128.721 -125.467 -135.086 -139.825 -142.648 -146.038 -146.089 -146.384 -147.592 -147.919 -148.990 -148.060 -148.604 -148.132 -148.203 -144.820 -136.323 -141.490 -136.310 -142.591 -147.598 -147.850 -149.121 -149.339 -149.723 -149.709 -149.889 -149.735 -149.873 -150.236 -144.427 -145.633 -147.028 -149.094 -150.309 -151.078 -152.282 -152.612 -151.316 -150.869 -151.525 -154.034 -154.609 
-145.616 -139.552 -129.582 -121.463 -116.094 -82.250 -49.958 -80.612 -79.979 -51.844 11.166 16.697 32.347 42.853 47.235 45.360 -15.968 -23.965 -42.823 -94.019 -89.186 -97.594 -106.332 -97.986 -86.946 -105.394 -110.750 -118.121 -127.795 -131.957 -134.543 -135.083 -134.448 -134.900 -135.268 -135.683 -136.331 -141.891 -144.854 -145.398 -146.157 -145.476 -147.482 -149.237 -148.468 -148.841 -148.713 -148.210 -146.127 -139.710 -138.901 -137.642 -139.560 -143.022 -145.403 -148.197 -149.617 -149.658 -149.856 -149.933 -150.007 -149.778 -149.778 -150.327 -142.451 -143.423 -144.941 -146.477 -148.068 -149.029 -150.165 -151.038 -150.835 -150.169 -150.782 -153.190 -154.209 
-141.074 -137.540 -132.646 -129.716 -121.668 -110.921 -68.750 -18.551 -50.324 -58.811 -19.864 29.021 49.628 56.680 22.163 -29.731 -57.193 -70.528 -59.098 -78.992 -88.573 -67.145 -102.971 -104.773 -115.613 -120.142 -116.549 -121.346 -126.402 -130.688 -135.531 -138.148 -138.970 -137.388 -140.198 -140.857 -141.381 -140.273 -142.050 -143.311 -146.986 -148.903 -149.020 -148.774 -148.553 -149.007 -148.082 -147.801 -143.870 -137.011 -140.296 -143.597 -145.815 -147.717 -149.360 -149.160 -149.593 -149.491 -149.836 -149.806 -148.669 -149.406 -149.857 -150.334 -150.586 -140.432 -143.122 -144.512 -146.038 -147.356 -148.629 -149.223 -149.617 -149.908 -149.663 -151.661 -152.975 
-124.686 -117.688 -116.809 -114.557 -118.952 -112.864 -97.522 -38.149 22.163 -17.483 -17.198 43.802 60.163 22.869 -43.819 -67.189 -50.780 -76.925 -85.161 -82.018 -110.844 -98.596 -93.618 -111.757 -121.826 -124.376 -122.756 -122.283 -127.004 -132.637 -135.489 -139.379 -141.187 -141.254 -141.937 -142.818 -143.283 -140.370 -139.552 -143.966 -148.916 -148.894 -149.122 -149.493 -149.146 -148.228 -148.061 -147.640 -146.984 -138.974 -141.004 -144.052 -142.850 -140.545 -148.978 -149.393 -149.530 -149.392 -149.545 -149.386 -148.722 -149.761 -149.836 -150.205 -150.486 -150.792 -140.624 -142.990 -144.726 -146.368 -147.876 -148.562 -148.566 -149.284 -149.681 -149.779 -150.674 
-129.025 -110.635 -95.391 -88.305 -79.425 -96.100 -97.423 -69.367 12.562 2.292 28.563 56.840 50.589 -28.295 -62.172 -79.298 -84.860 -81.502 -89.093 -97.025 -101.295 -116.022 -121.700 -123.150 -123.594 -126.519 -129.659 -127.180 -128.454 -132.735 -136.612 -140.310 -142.094 -143.109 -143.802 -143.635 -141.847 -143.363 -147.054 -149.102 -149.520 -149.216 -149.305 -148.877 -146.465 -147.985 -146.569 -147.951 -147.792 -143.483 -134.179 -131.659 -133.210 -142.572 -147.403 -149.538 -149.175 -149.390 -148.911 -148.929 -148.791 -150.294 -150.639 -150.762 -151.340 -150.345 -150.357 -140.850 -143.318 -144.584 -146.866 -148.114 -148.502 -149.132 -149.699 -149.825 -149.822 
-146.295 -139.301 -121.190 -117.625 -100.888 -73.926 -64.686 -46.810 -65.551 -68.274 -58.079 -20.640 39.656 -7.915 -48.337 -73.142 -88.062 -93.078 -98.272 -101.555 -102.930 -113.137 -120.910 -121.655 -123.518 -127.140 -131.751 -132.023 -131.092 -133.262 -137.116 -139.885 -139.303 -142.100 -144.958 -146.374 -146.723 -147.677 -149.174 -149.420 -149.669 -149.158 -149.693 -149.125 -143.832 -144.283 -145.008 -145.992 -145.223 -140.544 -135.391 -138.487 -142.747 -143.670 -147.715 -149.920 -149.377 -149.725 -148.981 -148.250 -150.050 -150.325 -151.011 -151.154 -150.145 -149.992 -150.067 -149.910 -165.285 -151.106 -144.908 -146.847 -147.958 -148.833 -149.499 -149.625 -149.750 
-146.466 -143.406 -138.039 -127.308 -114.014 -101.646 -90.876 -82.420 -85.874 -94.354 -76.995 -66.401 -35.606 -39.938 -64.948 -73.556 -76.910 -86.574 -100.268 -104.778 -108.037 -111.849 -116.371 -119.412 -121.987 -124.756 -129.015 -133.767 -135.117 -133.312 -137.252 -138.440 -135.823 -135.955 -143.192 -144.806 -146.790 -148.368 -149.316 -149.575 -147.070 -144.365 -146.097 -146.040 -139.858 -138.611 -143.018 -141.202 -140.468 -131.901 -123.793 -134.375 -142.685 -147.485 -150.012 -150.357 -149.351 -149.352 -145.720 -148.405 -148.914 -148.814 -148.935 -149.849 -150.345 -150.685 -149.979 -150.293 -149.649 -149.623 -141.486 -143.369 -144.915 -146.292 -147.222 -147.857 -148.380 
-147.349 -146.012 -142.187 -134.415 -125.540 -119.277 -113.769 -111.215 -106.216 -102.205 -93.328 -88.350 -68.971 -59.499 -95.694 -92.024 -94.639 -111.653 -115.940 -116.441 -112.979 -113.386 -116.071 -119.561 -121.912 -124.975 -122.955 -131.545 -135.968 -137.168 -132.892 -132.073 -131.036 -135.006 -139.073 -142.590 -146.789 -148.123 -146.860 -146.230 -143.937 -142.240 -138.609 -138.844 -132.046 -131.856 -133.488 -131.156 -128.064 -127.375 -131.005 -134.427 -138.805 -146.138 -151.192 -149.952 -149.568 -148.568 -145.517 -146.697 -146.396 -146.577 -147.479 -148.858 -149.002 -149.229 -149.379 -149.501 -149.801 -149.656 -149.618 -146.201 -142.118 -143.759 -144.727 -145.288 -146.154 
-148.821 -148.997 -149.486 -136.738 -132.375 -128.387 -124.218 -119.849 -114.334 -108.652 -96.883 -98.564 -97.392 -100.395 -106.726 -114.193 -117.368 -121.626 -121.849 -118.559 -115.867 -115.521 -118.188 -121.562 -124.708 -127.122 -129.743 -132.429 -134.237 -137.197 -138.732 -135.966 -136.680 -137.585 -139.215 -144.374 -146.194 -147.219 -144.477 -146.643 -138.099 -142.354 -137.258 -135.890 -133.524 -136.680 -132.853 -131.982 -121.207 -130.464 -135.782 -138.952 -143.742 -147.407 -148.711 -144.651 -139.359 -139.332 -138.836 -147.716 -148.363 -148.401 -145.386 -145.586 -148.316 -149.873 -149.522 -148.782 -149.629 -149.461 -148.920 -149.222 -149.026 -141.101 -142.015 -142.389 -143.268 
-147.739 -149.336 -153.861 -137.309 -134.784 -133.015 -127.145 -119.872 -113.466 -105.965 -106.097 -105.833 -109.715 -114.136 -119.299 -121.274 -121.384 -123.617 -124.115 -121.414 -114.216 -114.100 -116.715 -119.014 -122.710 -126.087 -128.519 -126.519 -131.495 -134.684 -138.643 -139.888 -140.438 -142.630 -143.506 -145.178 -144.787 -140.155 -139.642 -141.806 -143.777 -143.367 -145.691 -146.541 -145.084 -143.775 -140.541 -135.990 -126.972 -130.841 -135.823 -140.492 -146.397 -145.582 -141.143 -138.857 -141.824 -145.969 -147.183 -146.642 -148.508 -150.303 -150.652 -149.212 -148.114 -148.730 -148.538 -149.226 -149.220 -149.166 -149.399 -149.636 -149.614 -149.432 -148.024 -139.448 -139.657 
-144.772 -148.189 -148.175 -141.434 -137.940 -135.376 -129.607 -124.605 -118.783 -115.521 -117.636 -113.175 -114.339 -117.739 -122.720 -125.049 -124.525 -124.931 -126.120 -125.193 -121.335 -119.109 -118.146 -121.808 -125.655 -128.387 -128.653 -130.376 -133.602 -136.385 -137.857 -139.933 -140.330 -139.698 -141.912 -140.524 -137.878 -137.358 -142.193 -147.300 -147.427 -146.929 -148.446 -147.152 -145.911 -143.024 -139.128 -135.849 -129.836 -135.216 -138.345 -137.249 -136.472 -139.469 -131.255 -138.641 -142.650 -147.613 -149.591 -149.115 -148.078 -150.112 -150.905 -150.067 -148.463 -149.492 -149.091 -149.637 -150.378 -149.697 -149.997 -150.186 -150.414 -149.932 -149.794 -149.859 -149.667 
-150.095 -149.971 -145.127 -141.158 -138.043 -134.241 -131.282 -121.917 -118.647 -120.244 -122.263 -120.161 -120.037 -122.265 -124.755 -127.329 -126.235 -127.760 -127.698 -127.847 -124.776 -123.237 -126.641 -126.343 -129.036 -132.591 -132.855 -135.166 -136.650 -137.138 -134.503 -135.313 -137.393 -139.362 -140.731 -139.162 -139.986 -143.417 -145.254 -146.296 -147.642 -148.486 -148.925 -148.409 -143.735 -141.186 -142.508 -136.207 -129.918 -132.977 -134.661 -134.203 -131.902 -132.461 -133.854 -142.317 -143.180 -143.728 -148.848 -148.791 -148.904 -149.402 -149.702 -149.442 -149.675 -150.442 -150.213 -150.236 -150.312 -150.353 -149.742 -150.030 -149.982 -150.053 -150.031 -149.819 -149.831 
-144.743 -149.666 -148.116 -143.233 -141.068 -129.768 -124.832 -121.271 -124.077 -127.418 -125.235 -125.777 -123.522 -126.433 -128.228 -129.456 -126.486 -127.567 -127.950 -126.219 -122.604 -118.313 -123.696 -127.597 -129.348 -131.499 -133.375 -132.172 -132.139 -131.426 -131.488 -133.219 -135.463 -136.710 -137.139 -136.930 -141.520 -145.632 -147.035 -147.361 -146.929 -148.088 -148.407 -149.812 -149.720 -147.725 -144.325 -135.769 -135.447 -130.078 -131.886 -129.563 -130.455 -137.919 -139.174 -144.534 -147.786 -148.885 -148.500 -148.892 -149.067 -149.791 -150.184 -149.976 -149.798 -150.627 -150.655 -151.155 -150.462 -150.392 -150.274 -150.070 -150.093 -150.536 -150.334 -150.038 -149.845 
-142.193 -144.154 -147.248 -146.943 -145.110 -137.864 -128.214 -125.400 -129.339 -132.926 -131.058 -131.174 -125.757 -127.871 -131.566 -129.895 -126.398 -129.339 -127.888 -121.688 -120.053 -118.368 -118.439 -122.180 -122.530 -126.987 -126.670 -127.263 -130.440 -133.645 -136.612 -137.390 -142.229 -144.027 -144.178 -142.556 -141.383 -144.952 -148.887 -148.763 -147.118 -149.056 -145.352 -144.927 -149.855 -150.251 -149.649 -147.468 -140.151 -131.927 -130.564 -128.953 -130.586 -142.129 -146.110 -147.850 -148.805 -148.645 -148.730 -149.472 -149.821 -149.818 -149.966 -150.490 -150.201 -150.389 -151.236 -151.450 -151.694 -151.022 -150.486 -150.661 -150.353 -150.262 -150.596 -150.015 -150.223 
-138.300 -140.342 -145.063 -146.178 -146.783 -140.194 -130.874 -130.425 -133.778 -135.659 -134.095 -134.661 -128.737 -129.543 -133.489 -129.289 -130.806 -131.052 -128.495 -126.072 -123.669 -121.148 -111.823 -112.431 -112.114 -115.166 -120.978 -134.374 -133.462 -132.510 -136.737 -139.314 -143.563 -144.958 -147.341 -148.805 -149.869 -148.546 -149.140 -149.962 -150.003 -150.025 -147.770 -141.848 -147.909 -150.365 -150.659 -149.542 -136.250 -130.306 -135.524 -136.325 -128.918 -145.918 -150.328 -149.584 -149.194 -150.105 -149.486 -149.664 -150.199 -150.450 -149.969 -150.779 -150.864 -150.882 -151.702 -151.598 -151.454 -151.204 -150.668 -150.820 -150.374 -150.530 -150.126 -150.614 -150.254 
-140.201 -146.678 -147.589 -146.436 -146.988 -145.513 -135.349 -134.332 -134.740 -138.980 -136.429 -136.090 -130.069 -133.658 -134.158 -133.392 -133.763 -129.799 -127.865 -125.818 -120.991 -114.765 -112.980 -113.464 -111.833 -121.917 -133.260 -134.164 -137.032 -141.089 -141.854 -142.134 -141.520 -142.554 -146.862 -149.361 -150.434 -149.657 -149.445 -149.622 -150.892 -149.795 -148.736 -138.302 -143.552 -150.279 -151.400 -146.587 -133.416 -130.620 -144.014 -144.478 -148.262 -149.535 -149.855 -149.866 -149.918 -149.716 -149.557 -149.317 -150.033 -150.100 -150.074 -150.231 -150.365 -151.365 -151.986 -151.178 -151.264 -151.336 -150.599 -150.952 -150.575 -150.383 -150.298 -150.170 -150.046 
-143.583 -146.965 -146.275 -147.417 -147.204 -145.050 -139.151 -139.469 -138.505 -140.295 -137.229 -131.454 -133.650 -136.127 -135.399 -136.267 -133.363 -130.000 -125.763 -122.287 -117.331 -110.247 -115.251 -115.216 -117.905 -131.893 -134.675 -138.421 -142.173 -143.270 -144.548 -146.040 -148.609 -149.244 -146.159 -146.788 -150.057 -148.809 -149.658 -149.792 -150.074 -148.462 -145.001 -141.754 -142.760 -150.162 -154.596 -138.177 -133.411 -132.853 -147.126 -149.856 -150.302 -149.397 -149.985 -149.605 -150.122 -150.166 -150.434 -149.718 -150.678 -150.064 -149.961 -150.156 -150.102 -151.421 -151.568 -151.011 -151.369 -151.159 -150.835 -151.073 -150.407 -150.505 -150.327 -150.263 -150.136 
-144.498 -143.049 -147.477 -147.061 -147.305 -146.603 -147.268 -144.117 -143.179 -136.779 -134.695 -136.719 -139.017 -137.528 -136.499 -132.122 -131.547 -129.887 -125.611 -119.583 -108.929 -109.603 -116.588 -116.829 -119.948 -130.132 -134.993 -140.147 -143.022 -143.889 -146.086 -145.690 -147.896 -150.094 -149.984 -149.928 -149.944 -149.750 -149.060 -149.736 -149.160 -144.898 -140.815 -140.934 -145.306 -150.918 -152.636 -149.429 -142.493 -140.363 -146.388 -150.557 -149.964 -149.645 -149.509 -150.028 -150.113 -150.034 -149.801 -149.785 -150.214 -149.972 -150.175 -150.832 -150.091 -150.876 -151.006 -150.891 -150.961 -151.150 -150.763 -150.976 -150.567 -150.960 -150.959 -150.062 -149.671 
-140.330 -141.874 -144.820 -146.531 -141.348 -142.031 -147.934 -139.974 -138.948 -141.413 -142.036 -140.158 -136.712 -125.491 -123.820 -122.080 -121.219 -123.874 -122.125 -119.711 -111.503 -119.453 -118.665 -118.193 -113.990 -120.771 -128.706 -139.115 -141.507 -142.799 -146.730 -148.367 -149.629 -149.300 -149.718 -149.753 -150.042 -149.553 -149.842 -149.902 -146.603 -143.500 -139.360 -142.097 -149.018 -149.416 -150.344 -150.387 -150.412 -150.787 -146.504 -147.528 -149.644 -149.981 -149.724 -150.311 -149.749 -149.561 -149.821 -149.963 -149.811 -149.802 -150.383 -150.316 -149.918 -150.003 -150.128 -150.393 -150.614 -150.553 -150.312 -150.481 -150.027 -149.558 -150.114 -149.573 -149.418 
-139.795 -140.368 -129.693 -133.962 -133.835 -140.164 -145.522 -144.907 -143.967 -139.026 -130.226 -128.629 -123.186 -129.037 -129.278 -126.399 -121.396 -116.051 -114.939 -112.452 -113.844 -116.181 -119.656 -118.460 -106.588 -110.479 -119.031 -130.027 -137.477 -138.302 -144.835 -147.488 -149.038 -149.916 -150.197 -149.537 -149.603 -149.847 -149.598 -149.253 -147.139 -146.240 -141.237 -148.792 -150.057 -150.428 -150.305 -150.708 -149.731 -149.979 -148.349 -144.592 -148.647 -150.126 -149.767 -150.256 -149.910 -149.587 -149.344 -149.362 -149.350 -149.396 -150.663 -150.644 -149.901 -149.867 -149.818 -149.811 -149.910 -150.012 -150.071 -150.175 -149.314 -149.533 -149.481 -149.948 -149.893 
-141.275 -130.400 -133.606 -137.057 -137.639 -140.202 -145.929 -146.286 -134.653 -134.392 -133.351 -131.571 -133.629 -133.303 -125.677 -119.947 -121.264 -121.540 -119.565 -114.796 -112.093 -116.511 -121.708 -123.348 -110.388 -116.865 -121.756 -122.058 -131.654 -136.031 -140.843 -143.295 -146.855 -149.150 -149.936 -149.477 -149.904 -149.602 -148.899 -149.017 -149.494 -150.333 -149.983 -149.964 -150.020 -150.387 -149.672 -149.916 -149.607 -149.822 -149.187 -149.525 -151.309 -149.857 -149.339 -149.722 -149.249 -149.089 -149.039 -149.294 -149.072 -149.316 -150.560 -149.860 -149.770 -149.944 -150.740 -149.793 -149.685 -149.439 -149.883 -149.508 -149.589 -149.497 -149.234 -149.493 -149.254 
